# .PCD v0.7 - Point Cloud Data file format
VERSION 0.7
FIELDS x y z rgb
SIZE 4 4 4 4
TYPE F F F F
COUNT 1 1 1 1
WIDTH 1038
HEIGHT 1
VIEWPOINT 0 0 0 1 0 0 0
POINTS 1038
DATA ascii
-0.17362186 -0.076486908 0.61068457 13.536607
-0.17357238 -0.076578185 0.61111391 15.527602
-0.17323507 -0.07651566 0.61096865 12.306474
-0.17308682 -0.076563239 0.6110518 14.398646
-0.17267497 -0.076467656 0.61064142 12.133223
-0.17253467 -0.076518834 0.61075503 14.712404
-0.1722357 -0.076473191 0.61074048 11.954885
-0.17217034 -0.076557755 0.61112159 13.573677
-0.17184392 -0.076499984 0.61100858 11.550776
-0.17166927 -0.076535836 0.61100364 13.154674
-0.17133418 -0.076473951 0.610856 11.631041
-0.17126696 -0.076557904 0.61123586 13.933475
-0.17090543 -0.076484241 0.61099261 11.922535
-0.1707508 -0.076529145 0.61106306 14.094741
-0.17035438 -0.076439671 0.61069191 11.726341
-0.17029805 -0.076528616 0.6111151 13.490843
-0.1699817 -0.076475166 0.61102915 11.326051
-0.16982538 -0.076519199 0.61109602 13.486553
-0.16951804 -0.076469764 0.61104041 12.099746
-0.16936815 -0.076516725 0.61113244 13.277955
-0.16908705 -0.076478958 0.61116773 11.715917
-0.16890226 -0.076510303 0.61113703 12.704859
-0.16850804 -0.076421231 0.61076182 10.7322
-0.16841708 -0.076495036 0.61107117 12.369912
-0.16816932 -0.076472498 0.61122429 11.932368
-0.16805376 -0.07653521 0.61144698 15.086813
-0.16764781 -0.076440684 0.61102468 13.20444
-0.16754408 -0.076508798 0.61129189 14.411793
-0.16719355 -0.076439388 0.61106795 12.470554
-0.16701454 -0.076472983 0.61106181 13.341572
-0.16667129 -0.076406918 0.61086261 11.741415
-0.16662027 -0.076499268 0.61132681 13.379146
-0.16625653 -0.076423772 0.61105049 11.019923
-0.16608948 -0.076462828 0.61109132 11.832745
-0.16585545 -0.07644695 0.61128861 11.347797
-0.16571401 -0.076497927 0.61142606 13.185871
-0.1653821 -0.076436765 0.61126071 12.44144
-0.16529211 -0.076511577 0.61158991 14.879976
-0.16491 -0.076427259 0.611238 14.577241
-0.16475625 -0.076472528 0.61133337 15.386736
-0.1644024 -0.076400995 0.61108154 13.708581
-0.16435599 -0.076496385 0.61157835 15.625165
-0.16393515 -0.076393589 0.61107534 13.535542
-0.16377571 -0.076436184 0.61115259 15.189157
-0.16351289 -0.076407082 0.61123562 12.097453
-0.16339231 -0.076468006 0.61146098 13.205644
-0.16312173 -0.076435216 0.61151272 10.536119
-0.16296448 -0.076479174 0.61160439 13.963764
-0.16251543 -0.076362379 0.61098427 12.371712
-0.16246335 -0.076455593 0.61147034 14.160493
-0.16206945 -0.076364756 0.61105567 12.877484
-0.16198215 -0.076441512 0.61141193 14.928216
-0.16161558 -0.076363355 0.61109668 12.64142
-0.16151156 -0.07643234 0.61139292 13.500501
-0.16123672 -0.076397628 0.61142242 11.662737
-0.1610034 -0.076405287 0.61123067 13.097863
-0.16078179 -0.076395757 0.61145949 11.642428
-0.16056745 -0.076412402 0.61134118 12.220032
-0.16026014 -0.076362252 0.61124414 11.816896
-0.16007861 -0.076394424 0.61125118 13.920686
-0.1598848 -0.076398425 0.6115846 11.261286
-0.15971568 -0.076436706 0.61164224 13.878736
-0.15935102 -0.076358899 0.61132097 14.131551
-0.15921515 -0.076412775 0.61150455 16.770956
-0.15893592 -0.076376051 0.61150938 14.319284
-0.15879533 -0.076427922 0.61167866 15.953724
-0.15838461 -0.076327756 0.61117512 12.672126
-0.15827194 -0.076392993 0.61145276 14.836459
-0.15795547 -0.076338112 0.61130929 13.448138
-0.15778092 -0.076373532 0.6113503 14.804048
-0.15753981 -0.076355249 0.61149728 13.039218
-0.15737447 -0.076395176 0.61157608 14.756787
-0.15705284 -0.076337844 0.61140949 12.23292
-0.1569095 -0.076388381 0.61157441 13.457777
-0.15657444 -0.076324254 0.61135203 11.561073
-0.15642753 -0.076373145 0.61150539 13.640395
-0.1561747 -0.076349132 0.61160159 12.61842
-0.15596344 -0.076366715 0.6115067 14.078164
-0.15564148 -0.076308936 0.61133122 12.365713
-0.15557992 -0.076399639 0.61182189 14.513275
-0.15528895 -0.076357156 0.61176717 12.936789
-0.1551114 -0.076391131 0.61180621 15.77865
-0.15473947 -0.076308452 0.6114285 14.05011
-0.15457055 -0.076346591 0.61150235 15.500771
-0.15426224 -0.076295301 0.61137378 12.996119
-0.15415493 -0.07636404 0.6116938 13.361916
-0.15380375 -0.076291434 0.61139321 12.542117
-0.15364665 -0.076335303 0.61151582 13.574199
-0.15337703 -0.076303281 0.61153805 12.480505
-0.15325411 -0.076364405 0.61180025 13.637383
-0.15291604 -0.076298073 0.61154652 12.319246
-0.15279233 -0.076358795 0.61180717 12.92638
-0.15246153 -0.076296136 0.61158097 11.150827
-0.15232027 -0.076348081 0.61177278 12.696756
-0.15206723 -0.076324441 0.61185706 11.030241
-0.15188381 -0.076355353 0.61188215 14.162267
-0.15151519 -0.07627324 0.61149728 11.756289
-0.15141295 -0.076345026 0.61185092 14.404464
-0.15107904 -0.076280668 0.61160642 12.629596
-0.15090795 -0.076317593 0.61168265 14.383852
-0.1506477 -0.07629025 0.61173242 12.481465
-0.15053101 -0.076354921 0.61203218 13.640344
-0.15014234 -0.076262489 0.61155987 12.092104
-0.1500074 -0.07631772 0.61178541 14.557452
-0.14972992 -0.076281771 0.6117633 13.638742
-0.1496122 -0.076346152 0.61206377 15.280155
-0.14927754 -0.076280862 0.61180502 13.076283
-0.14914118 -0.076335616 0.61202991 14.039367
-0.14877014 -0.076251574 0.61161977 12.821672
-0.14865126 -0.07631547 0.61191928 14.720581
-0.148362 -0.07627327 0.61184216 13.375935
-0.1481961 -0.076313064 0.61195046 14.465244
-0.14779706 -0.076214239 0.61141872 13.122909
-0.1477333 -0.076306589 0.61194885 14.972971
-0.14740805 -0.07624577 0.61171937 12.696602
-0.14720586 -0.076266631 0.61167908 14.499337
-0.14698075 -0.076257721 0.61186337 12.599065
-0.1467751 -0.076276608 0.61180866 15.313392
-0.14649414 -0.076238811 0.61176044 12.724727
-0.14633396 -0.076281533 0.61189818 14.94771
-0.14608492 -0.076260336 0.61198092 12.748671
-0.14589833 -0.076289296 0.61200994 15.612681
-0.14561136 -0.076248318 0.61193311 14.59812
-0.14543127 -0.076280318 0.61198771 17.592379
-0.14516981 -0.076252885 0.61201745 15.183861
-0.14492075 -0.07624869 0.61178392 16.703928
-0.1446632 -0.07622309 0.6118269 15.847445
-0.14450361 -0.076265924 0.6119712 17.172255
-0.14423825 -0.076236472 0.61198163 15.467108
-0.14406328 -0.076271296 0.61206341 17.130272
-0.14371644 -0.07619831 0.61172384 14.331771
-0.14356321 -0.076244771 0.61189997 16.55294
-0.14328448 -0.07620807 0.61184943 13.931914
-0.14311352 -0.076244943 0.61195028 15.380082
-0.14283149 -0.076206565 0.61188477 13.446485
-0.14268224 -0.076255053 0.6120801 16.104811
-0.14240055 -0.076216817 0.61201411 13.73062
-0.142208 -0.076242045 0.61202466 16.031475
-0.1419148 -0.076197453 0.61190617 12.859721
-0.14177455 -0.076250941 0.61214441 14.257527
-0.14151175 -0.076222807 0.61215603 12.050987
-0.14132309 -0.076250166 0.61218649 14.334026
-0.14101538 -0.076197766 0.61200249 12.198297
-0.1408387 -0.076231569 0.61208588 14.375001
-0.14061238 -0.076223247 0.61225325 12.362997
-0.14039664 -0.07623598 0.61216938 13.899432
-0.14011084 -0.076195322 0.61207634 11.442644
-0.1399277 -0.076225579 0.61213398 14.742089
-0.13962764 -0.076177157 0.6119774 13.176665
-0.13948534 -0.076229759 0.61221552 14.096786
-0.13921347 -0.076196745 0.61218065 12.637712
-0.1390246 -0.076223813 0.61221558 14.473014
-0.13873442 -0.076180749 0.61209863 11.312922
-0.13857321 -0.076223038 0.61225706 12.810812
-0.13830993 -0.076194905 0.61225832 11.466307
-0.1381465 -0.076236024 0.61240852 13.266216
-0.13781947 -0.07617227 0.61212271 12.636771
-0.13761508 -0.076190792 0.61209345 15.592285
-0.13737172 -0.076173499 0.61217856 13.566039
-0.13719735 -0.07620845 0.61228216 14.336906
-0.13689208 -0.076156989 0.61209196 11.794365
-0.13671529 -0.076190509 0.61218542 14.143064
-0.13641661 -0.076142527 0.61202168 11.918947
-0.13623196 -0.076171756 0.61208212 12.838646
-0.13602549 -0.076175332 0.61233002 11.161178
-0.13586009 -0.076215461 0.61247933 13.361469
-0.13549633 -0.076130651 0.61201715 11.127079
-0.1353537 -0.076183468 0.61226934 14.060713
-0.13503711 -0.076125354 0.61202013 12.411098
-0.13487978 -0.076169834 0.61220658 14.543851
-0.13462779 -0.076148167 0.61224812 12.362482
-0.1344517 -0.076181956 0.61235017 14.290416
-0.13416313 -0.076139472 0.61222315 13.517125
-0.13399576 -0.076178499 0.61236888 15.156047
-0.13370962 -0.076137297 0.61225069 13.1668
-0.13352345 -0.076165445 0.61231029 14.964475
-0.13325544 -0.076134868 0.61227584 13.307619
-0.13312608 -0.076195478 0.61259741 14.317432
-0.13271981 -0.076085433 0.61192405 11.901118
-0.1325857 -0.076143287 0.61222446 13.505621
-0.13231659 -0.076111868 0.61218053 11.435614
-0.13222332 -0.076193482 0.61267287 13.33317
-0.13190421 -0.076133385 0.61239743 12.136108
-0.13174196 -0.07617531 0.61257291 15.377485
-0.13144927 -0.076130301 0.61241686 14.490843
-0.1312602 -0.076156594 0.61246818 16.138371
-0.13099159 -0.076125436 0.61242187 13.439716
-0.13080631 -0.076154113 0.61249357 14.877159
-0.1305331 -0.076120399 0.61242539 11.622157
-0.13036852 -0.076160885 0.61259317 12.566223
-0.13008484 -0.076121084 0.61247462 12.634771
-0.12991112 -0.076156281 0.61260128 14.499557
-0.12961121 -0.076106727 0.61240327 13.899717
-0.12944426 -0.076146066 0.61256433 16.117851
-0.12916178 -0.076106846 0.61244768 14.699055
-0.1289739 -0.076133743 0.61251026 16.852383
-0.12864497 -0.076067038 0.61217159 13.642753
-0.12850225 -0.076120436 0.61244816 14.715517
-0.1282641 -0.076107584 0.6125403 12.317706
-0.128067 -0.076128997 0.61256135 12.590034
-0.12776598 -0.076078586 0.61235082 12.508392
-0.1275519 -0.076089479 0.61228842 14.301731
-0.12730718 -0.076072872 0.61234784 12.496805
-0.12720916 -0.076153308 0.61284518 13.424761
-0.12685952 -0.076073863 0.6123988 13.008072
-0.12673564 -0.076138794 0.61277288 14.598388
-0.12641808 -0.076078452 0.61247838 13.237021
-0.12627281 -0.076130889 0.61275339 15.824704
-0.12594719 -0.076065466 0.61241674 14.305347
-0.12576863 -0.076097541 0.6125294 15.772533
-0.12550405 -0.07606902 0.61248767 13.895349
-0.12534308 -0.076111957 0.61268896 15.185926
-0.12502284 -0.076049551 0.61237383 12.659374
-0.1248631 -0.076093197 0.61258179 14.622944
-0.1246537 -0.07609839 0.61280817 12.425439
-0.12445098 -0.076115914 0.61280775 14.193354
-0.12416786 -0.076075971 0.61267018 12.732801
-0.12398144 -0.076103471 0.61275113 14.892844
-0.12363867 -0.076026775 0.61231703 12.665339
-0.12351557 -0.076093197 0.61271179 13.79491
-0.12323046 -0.07605207 0.61256212 12.40664
-0.12310607 -0.076117612 0.61295104 14.939499
-0.12279082 -0.076057948 0.61265111 13.190538
-0.12264243 -0.076108858 0.61292374 15.544469
-0.12232346 -0.076046728 0.61260253 13.837551
-0.12212531 -0.076066397 0.61262494 15.017497
-0.12188076 -0.076050416 0.61267358 12.599122
-0.12167824 -0.07606747 0.61267632 14.851929
-0.12143178 -0.076050714 0.61271739 13.586543
-0.12125443 -0.076083459 0.61284739 16.561337
-0.12094718 -0.076028377 0.61257899 13.68623
-0.12076388 -0.07605724 0.61267895 15.650906
-0.12047623 -0.076014362 0.6125074 13.576836
-0.12033609 -0.0760708 0.61283022 14.389509
-0.12005676 -0.076032974 0.61269766 13.346427
-0.11987538 -0.076063141 0.61281079 14.752734
-0.11959062 -0.076022044 0.61265087 12.986074
-0.1194275 -0.076064065 0.61286008 14.291101
-0.11914077 -0.0760215 0.61268705 12.54807
-0.11900043 -0.076077886 0.61301285 13.988491
-0.11870899 -0.076032534 0.61281621 13.109008
-0.1185431 -0.076072797 0.61301374 14.625628
-0.11820349 -0.075996034 0.61256319 11.943222
-0.11805853 -0.076049775 0.61287028 13.376749
-0.1177432 -0.075988665 0.61254418 11.450531
-0.11758064 -0.076030828 0.61275917 12.111716
-0.11734073 -0.076018691 0.61282551 11.014614
-0.11719914 -0.076074749 0.61315352 13.602754
-0.11689166 -0.076018617 0.61286509 11.808655
-0.11674733 -0.076072894 0.61317986 13.614758
-0.11646976 -0.076036215 0.61304629 12.771938
-0.11626808 -0.076053008 0.61306083 15.153163
-0.11597487 -0.076006286 0.61284548 13.289567
-0.11581171 -0.076048143 0.6130625 15.7338
-0.11550818 -0.075994223 0.61278802 13.93358
-0.11534574 -0.07603687 0.61301249 16.023249
-0.11504693 -0.075986117 0.61276209 13.920333
-0.11491147 -0.076046437 0.61312985 14.034362
-0.1145784 -0.075973034 0.61269623 13.429902
-0.11450323 -0.076073438 0.61338758 16.160273
-0.11418228 -0.076008022 0.61301678 14.661507
-0.11399502 -0.076034084 0.61311132 16.924149
-0.11369917 -0.075984813 0.61286908 14.618543
-0.11352483 -0.076019563 0.61303437 16.620268
-0.11326292 -0.075993463 0.61297756 13.972912
-0.11307142 -0.076016396 0.61304903 14.522367
-0.11283387 -0.07600674 0.613123 12.894481
-0.1126534 -0.076037258 0.61325675 15.416391
-0.11231406 -0.075958498 0.61277366 12.306629
-0.11212749 -0.075984709 0.61287338 13.304686
-0.11193517 -0.076005965 0.61319405 12.637712
-0.1117394 -0.076025903 0.61324441 14.503303
-0.11148357 -0.076003984 0.61321628 14.395112
-0.11128295 -0.076020628 0.61324131 15.992799
-0.11101254 -0.075988814 0.61313242 15.375348
-0.11083873 -0.076023772 0.61330599 16.751312
-0.11054359 -0.075974837 0.61305803 14.995986
-0.11033206 -0.075983852 0.61302382 16.943502
-0.11006715 -0.075955547 0.61294073 13.789788
-0.10987785 -0.07597968 0.61302906 15.251625
-0.10967483 -0.075994626 0.61329287 12.965277
-0.10945135 -0.075995147 0.61319238 14.248557
-0.10918285 -0.075964458 0.61308765 12.617273
-0.10899469 -0.075989321 0.61318415 14.754194
-0.10874034 -0.075968727 0.61315966 12.821674
-0.10855515 -0.075995699 0.61327398 13.657025
-0.10828892 -0.07596682 0.61318165 11.854887
-0.10807776 -0.075975344 0.61314863 12.69324
-0.10784888 -0.075972669 0.61326581 10.888761
-0.1076687 -0.076003395 0.61341274 12.84851
-0.10742699 -0.075991623 0.61345577 12.381762
-0.10719571 -0.075985953 0.61331034 14.652149
-0.10692003 -0.075950339 0.61316019 14.293551
-0.1067818 -0.076010577 0.61354661 15.924337
-0.10645005 -0.075934887 0.61307251 13.870685
-0.10630164 -0.075988077 0.61340326 16.10364
-0.10599611 -0.075930879 0.61307693 13.118767
-0.1057806 -0.0759359 0.61302054 14.514327
-0.10560337 -0.07597106 0.61343688 11.64204
-0.10536133 -0.075956859 0.61322689 14.097567
-0.10514911 -0.075967006 0.61344063 11.793736
-0.10489916 -0.075946763 0.61318278 13.01913
-0.10467693 -0.075949848 0.61333889 12.674742
-0.10450915 -0.075989105 0.61356127 14.734744
-0.10422353 -0.075946286 0.61334628 13.341149
-0.10405846 -0.075987555 0.61358571 13.623971
-0.10373423 -0.075916164 0.61313963 12.394092
-0.10363007 -0.076002374 0.61374211 13.313258
-0.10334747 -0.075961657 0.61354184 13.175368
-0.10316013 -0.075986467 0.61365086 16.366838
-0.102842 -0.075919315 0.61323643 14.581158
-0.10267027 -0.075955831 0.61344051 16.499601
-0.10242648 -0.075943865 0.61346966 14.181648
-0.10221629 -0.075951733 0.61344403 16.468134
-0.1019948 -0.07595621 0.61360466 13.836931
-0.10175693 -0.0759435 0.61341405 16.243753
-0.10150352 -0.07592427 0.61338234 14.109091
-0.10129473 -0.075932972 0.61336535 15.701613
-0.10105991 -0.075927846 0.61344641 13.454143
-0.10086796 -0.075949132 0.61353165 15.293769
-0.10058759 -0.075909577 0.613334 12.252521
-0.10042208 -0.075951114 0.61358351 14.607148
-0.10016176 -0.07592658 0.6135059 13.44373
-0.099940814 -0.075925663 0.61341423 15.038635
-0.099735476 -0.075943358 0.61367577 11.792356
-0.099545777 -0.07596644 0.61377853 13.527654
-0.099235736 -0.075904146 0.61339444 12.363701
-0.099067241 -0.075943351 0.61362779 14.238919
-0.098760128 -0.075883247 0.61326045 12.081319
-0.098616488 -0.075941369 0.61364716 13.891818
-0.098345391 -0.075908884 0.61350119 12.524833
-0.098154821 -0.075930886 0.61359775 14.20956
-0.097929746 -0.075934164 0.61373913 12.85568
-0.09769991 -0.075925604 0.61359006 13.781981
-0.097443685 -0.075904943 0.61353743 12.40412
-0.097248539 -0.075923122 0.61360508 13.981754
-0.096954584 -0.07587263 0.61331075 12.411096
-0.096831046 -0.075947322 0.61383492 14.325557
-0.096584655 -0.075934142 0.61384022 13.065007
-0.09638457 -0.075948775 0.61388123 15.107124
-0.096099101 -0.075904913 0.61363828 12.808336
-0.095926538 -0.075940877 0.61385179 16.76618
-0.095648274 -0.075902782 0.61365438 14.330389
-0.095440477 -0.075910792 0.61364371 16.364965
-0.095190704 -0.075895414 0.61362821 14.89783
-0.095017821 -0.075931184 0.61384225 15.84267
-0.094720826 -0.075877987 0.61352092 13.41094
-0.094554275 -0.075918883 0.6137768 15.635852
-0.0942946 -0.075895555 0.61369562 13.049942
-0.094091624 -0.075906903 0.61371422 15.118735
-0.093801387 -0.075858854 0.61343235 12.802389
-0.093639694 -0.075903781 0.61372262 13.322073
-0.09338256 -0.075882651 0.61365694 11.853549
-0.093222208 -0.075928651 0.61395675 15.082799
-0.092983477 -0.075922713 0.61401254 13.806769
-0.092745148 -0.075904883 0.61379838 14.587125
-0.092487879 -0.075883649 0.61372983 13.481082
-0.092291504 -0.075900413 0.61379546 15.363802
-0.092046231 -0.075889334 0.61380798 12.53885
-0.09184783 -0.075904027 0.61385763 14.654178
-0.091589957 -0.075882345 0.61378366 13.159791
-0.09137883 -0.075886659 0.61375046 13.540574
-0.091118641 -0.075863004 0.6136595 11.970152
-0.09096656 -0.075916164 0.61402124 14.84814
-0.090699226 -0.075886972 0.61388475 12.045752
-0.090504691 -0.075904809 0.61396229 15.260048
-0.090192512 -0.075837344 0.61351591 12.923454
-0.090037607 -0.075888589 0.61386395 14.310798
-0.089787193 -0.075873442 0.61383873 13.383653
-0.089596726 -0.075894624 0.61394495 13.368641
-0.089339264 -0.075873598 0.61387116 13.06486
-0.089135081 -0.07588286 0.61388212 15.300826
-0.088919871 -0.075898185 0.61410093 14.853908
-0.088702403 -0.075895846 0.61401898 17.223372
-0.088435359 -0.075866975 0.6138801 15.112941
-0.088238016 -0.075881876 0.61393809 17.577417
-0.08797659 -0.075857379 0.61383367 15.646886
-0.087777324 -0.075870551 0.61387831 17.234631
-0.087503314 -0.075835362 0.6136865 15.48609
-0.087314874 -0.075858064 0.61380917 16.37571
-0.087094225 -0.075869165 0.61399007 15.013658
-0.086897753 -0.075884692 0.61405534 17.020821
-0.086601049 -0.075829804 0.61370289 14.633322
-0.086436689 -0.075872853 0.61399102 16.022837
-0.08615385 -0.075830013 0.61373484 13.09249
-0.086022615 -0.075903006 0.61426562 15.013531
-0.085756905 -0.075875305 0.61413062 13.738475
-0.085558444 -0.075888626 0.61418056 15.316401
-0.085293218 -0.075861201 0.61404693 14.795496
-0.085113205 -0.075890876 0.61422944 16.180042
-0.084809668 -0.075829208 0.61381829 14.377229
-0.084626332 -0.075855874 0.61397737 15.825947
-0.084413171 -0.075875334 0.6142205 14.036945
-0.084195085 -0.075870782 0.61412841 16.916208
-0.083940208 -0.07585299 0.61406958 13.631946
-0.083766036 -0.075887896 0.61429691 17.429455
-0.083484285 -0.075845443 0.61403811 15.056644
-0.083283678 -0.075856321 0.61407191 18.125256
-0.08302217 -0.075832605 0.61396396 15.140498
-0.082833879 -0.075854719 0.61408913 17.167122
-0.082555868 -0.075815342 0.61385363 14.702808
-0.08241123 -0.075877689 0.61430454 16.554174
-0.082132787 -0.075838372 0.61406851 14.393806
-0.081937514 -0.075853623 0.61413985 16.761349
-0.081661083 -0.075815968 0.61391646 14.519822
-0.081497118 -0.075860515 0.61422521 15.27382
-0.081241176 -0.075841703 0.61415297 12.985757
-0.081095636 -0.075903714 0.61460346 14.724294
-0.080811411 -0.075858772 0.61431909 11.928454
-0.08064387 -0.075900331 0.61460549 14.291962
-0.080360189 -0.075855717 0.61432296 13.943679
-0.080166057 -0.075872064 0.61440611 17.325211
-0.079883546 -0.075828433 0.61413091 15.669051
-0.079698227 -0.075852968 0.61428082 17.277864
-0.079413563 -0.075806975 0.61398554 13.999124
-0.079263791 -0.075865619 0.61441171 15.882724
-0.078992285 -0.075832546 0.61422014 13.457771
-0.078793347 -0.075843871 0.61426473 15.374342
-0.078533351 -0.075821713 0.61416042 12.557295
-0.078359105 -0.075856671 0.61439651 14.095656
-0.07809905 -0.075834736 0.61429316 12.408631
-0.077932857 -0.075877778 0.61459559 14.466374
-0.077658422 -0.075841904 0.61437863 13.870553
-0.077459075 -0.0758522 0.61441702 17.611916
-0.077231601 -0.075862162 0.61456949 15.114586
-0.0769981 -0.075839274 0.6143406 17.804188
-0.076736517 -0.075815737 0.61422175 14.867328
-0.076531962 -0.075820856 0.61421949 17.24567
-0.076268643 -0.075795665 0.61408657 13.312516
-0.076092258 -0.075828627 0.61431003 15.02064
-0.075820409 -0.075794987 0.61410809 13.106676
-0.075651541 -0.075835422 0.61439252 14.23127
-0.075414561 -0.075837068 0.61447471 11.621885
-0.075177975 -0.075809456 0.61420989 14.152349
-0.074961208 -0.075831458 0.614456 11.721816
-0.074756458 -0.075835809 0.61445022 14.314295
-0.074504636 -0.075822502 0.61440998 12.712338
-0.074326836 -0.075854264 0.61462647 15.415897
-0.074050032 -0.075815126 0.61437666 14.330931
-0.073867574 -0.075842217 0.61455601 15.906421
-0.073610596 -0.075823702 0.61447215 14.48252
-0.073426671 -0.075849131 0.61463863 15.637665
-0.073163308 -0.075824223 0.61450225 13.014134
-0.072992668 -0.075863272 0.61477971 15.038671
-0.072711162 -0.075819567 0.61449051 13.504351
-0.072519861 -0.075837068 0.61459422 15.343646
-0.072259799 -0.075815573 0.61448383 14.642767
-0.072085857 -0.075851806 0.61473966 17.299803
-0.071796626 -0.075799339 0.61437809 15.951036
-0.071609885 -0.075821452 0.61452037 17.90164
-0.071367398 -0.07581868 0.61455983 15.934583
-0.071170576 -0.075830027 0.61461568 16.44985
-0.070903368 -0.075801402 0.61444545 14.767291
-0.070710227 -0.075816579 0.61453277 16.19602
-0.070456564 -0.075802319 0.61447781 14.077933
-0.070262223 -0.075816117 0.61455464 15.65718
-0.070011653 -0.075805105 0.61452532 14.836689
-0.06980785 -0.075808287 0.61451674 15.571754
-0.069567651 -0.075808734 0.61457938 13.363618
-0.069378592 -0.075828329 0.61470425 15.330061
-0.069098502 -0.075785197 0.61441362 12.414153
-0.068917803 -0.075813644 0.61461049 14.53315
-0.068706259 -0.075846568 0.61493427 13.103581
-0.068474285 -0.07581833 0.61467367 15.401136
-0.068241864 -0.07582777 0.61480641 13.972489
-0.068026021 -0.075817309 0.6146903 17.36618
-0.067752019 -0.075780764 0.61445069 14.760727
-0.067586333 -0.07582581 0.61478364 18.467358
-0.067333072 -0.075812899 0.61473441 15.975251
-0.067137249 -0.075824365 0.6147967 17.400372
-0.06687241 -0.075798169 0.61463922 15.585613
-0.066710129 -0.075847723 0.61500996 17.640707
-0.066427663 -0.075801231 0.61468756 15.765847
-0.066225439 -0.075804941 0.61468804 17.395058
-0.065991975 -0.075815119 0.6148234 14.594414
-0.065790676 -0.075819537 0.6148302 16.837072
-0.065521754 -0.075788841 0.61463439 15.021025
-0.065336458 -0.075811923 0.61479259 16.183779
-0.065085374 -0.075801976 0.61476374 14.923836
-0.064882413 -0.075804427 0.61475545 16.614761
-0.064643487 -0.075808443 0.6148392 14.832569
-0.064451337 -0.075823344 0.61493224 16.229149
-0.06418293 -0.07579302 0.61473721 14.143488
-0.063997999 -0.075816773 0.61490262 17.088226
-0.063711427 -0.075764686 0.61453086 14.414114
-0.063553631 -0.075820394 0.61495513 16.015862
-0.063283324 -0.07578747 0.61473763 13.636835
-0.063104495 -0.075818568 0.61496353 14.722673
-0.062870026 -0.075828724 0.61509377 12.757106
-0.062645935 -0.075805001 0.61487675 14.829273
-0.062401351 -0.075803652 0.61491328 14.635044
-0.062215406 -0.07582549 0.61506504 17.747383
-0.061961763 -0.075813353 0.61501384 15.573926
-0.061742112 -0.075793631 0.6148299 17.862566
-0.061496623 -0.075791784 0.61486149 15.49706
-0.061290126 -0.07578826 0.61480904 16.891838
-0.061041698 -0.075782582 0.61480886 15.595436
-0.060858577 -0.075807601 0.61498779 16.507736
-0.060597111 -0.075786255 0.61486018 14.778848
-0.060403276 -0.075797558 0.61492872 16.639767
-0.060150202 -0.075786904 0.61488688 15.368297
-0.059972811 -0.075819276 0.61512655 17.370955
-0.059692871 -0.075774178 0.61480534 15.806485
-0.059509903 -0.07579954 0.61498851 19.569239
-0.059235934 -0.075761996 0.6147278 16.544094
-0.059051916 -0.075786062 0.61490107 18.11326
-0.058805961 -0.075784616 0.61493194 14.991756
-0.058586054 -0.075762145 0.61472911 16.870117
-0.058360744 -0.075787194 0.61497366 15.150137
-0.058165617 -0.075797155 0.61503386 16.949835
-0.057891678 -0.075759336 0.6147688 14.689631
-0.057713985 -0.075791202 0.6150068 16.565203
-0.057453044 -0.075770617 0.61488074 14.476544
-0.057247147 -0.075765133 0.61481678 16.251942
-0.057001501 -0.075765088 0.61485648 13.587005
-0.05682651 -0.075801052 0.61512852 15.841305
-0.056544993 -0.075752921 0.61477822 12.455301
-0.056361161 -0.075776711 0.61495209 14.909142
-0.056114141 -0.075774848 0.61497569 13.078863
-0.055933725 -0.075803533 0.61518985 15.290275
-0.055686694 -0.075802125 0.61521649 14.429446
-0.055492807 -0.075812787 0.61528516 16.896355
-0.055238862 -0.07580173 0.615233 14.874128
-0.055022623 -0.075781465 0.61505175 17.355871
-0.054766279 -0.075767443 0.61497509 15.526963
-0.054596487 -0.075810559 0.61530733 16.366804
-0.054332551 -0.075786196 0.61514658 14.049959
-0.054155141 -0.075819068 0.6153962 15.746325
-0.053890336 -0.075793788 0.6152271 13.505884
-0.053681534 -0.075782016 0.61511582 16.72707
-0.053446978 -0.075799882 0.61529565 13.892449
-0.053241182 -0.075792357 0.61521912 15.682608
-0.052995209 -0.075793728 0.61526489 14.063922
-0.052791946 -0.075789265 0.61521363 15.799388
-0.052533403 -0.075772896 0.61511505 13.534569
-0.052360024 -0.075811632 0.61541396 15.374239
-0.052103244 -0.075797945 0.61533654 13.454614
-0.051908121 -0.075805128 0.61538035 16.046196
-0.051653627 -0.07579492 0.61533046 13.764976
-0.051420785 -0.075746305 0.61492288 15.725207
-0.051197361 -0.075782448 0.61524796 14.187602
-0.051009916 -0.075800404 0.61537975 15.438012
-0.050752651 -0.075786293 0.61529702 13.651163
-0.050541785 -0.075768769 0.61514217 16.344934
-0.050300907 -0.075779691 0.61526167 15.02884
-0.050102144 -0.075780384 0.61525458 17.812006
-0.049869485 -0.075804114 0.61547732 14.108962
-0.049655057 -0.075780928 0.61527723 16.255011
-0.049409918 -0.075785972 0.61534828 14.368401
-0.049206354 -0.075778447 0.61527526 15.520152
-0.048958842 -0.075780421 0.61532086 12.924167
-0.048778113 -0.075808376 0.6155358 15.156524
-0.048504952 -0.075770102 0.61525464 12.671819
-0.048316561 -0.075786404 0.61537558 14.566377
-0.048044704 -0.075749651 0.61510634 12.755022
-0.047886048 -0.075812623 0.61560559 14.459261
-0.047609173 -0.075768605 0.61527693 12.658154
-0.047441274 -0.075817049 0.61565888 14.855906
-0.04716501 -0.07577353 0.61533374 14.093883
-0.046981722 -0.075797722 0.6155197 16.543541
-0.046743244 -0.075815089 0.61568689 14.293715
-0.046539094 -0.075805224 0.61559749 16.815912
-0.046285521 -0.075798936 0.61557275 14.980518
-0.046084046 -0.075792506 0.61551142 18.172962
-0.045818444 -0.075766496 0.61532664 16.000687
-0.045646876 -0.075809717 0.61566782 18.68259
-0.045370948 -0.075765923 0.61533815 17.197151
-0.045186538 -0.075788185 0.61550981 18.468014
-0.044930868 -0.075778782 0.61545855 16.111355
-0.044732772 -0.075777158 0.61543697 17.243832
-0.044479948 -0.075772382 0.61542267 14.94137
-0.044289656 -0.075783961 0.61550844 16.410601
-0.04404765 -0.075798698 0.61565167 14.415688
-0.043849606 -0.075796463 0.61562574 16.715004
-0.043604489 -0.075806484 0.6157304 15.133225
-0.043389242 -0.075773723 0.61545742 17.932581
-0.043130405 -0.075759269 0.61536324 14.73153
-0.042948954 -0.075786516 0.6155771 16.433735
-0.042695459 -0.075781234 0.61555654 14.529925
-0.04249252 -0.075769998 0.61545885 14.493179
-0.042245202 -0.075776666 0.61553484 14.08152
-0.042069156 -0.075812928 0.61582232 16.313519
-0.041811291 -0.075801007 0.6157468 14.550917
-0.041607454 -0.075787231 0.61562943 16.940466
-0.041352455 -0.075780623 0.61559665 14.756707
-0.041152485 -0.075772882 0.61552823 16.809244
-0.040910222 -0.075789966 0.61568701 14.346945
-0.040723044 -0.075805999 0.61581153 16.287077
-0.040446524 -0.075759448 0.61545438 14.318897
-0.040272996 -0.075801507 0.61579007 17.300058
-0.040014543 -0.075788744 0.61570609 14.517462
-0.039825175 -0.075800225 0.61579436 16.628433
-0.039565954 -0.075786695 0.6157037 15.542457
-0.039367963 -0.075781547 0.61565727 16.560801
-0.039130483 -0.07581 0.61590654 14.703735
-0.038936209 -0.075811803 0.61591685 17.043829
-0.038683474 -0.075810991 0.61592853 15.906927
-0.038483694 -0.075801603 0.61584836 19.182114
-0.038219824 -0.075779215 0.61568475 16.57032
-0.038030971 -0.075790979 0.61577642 18.353992
-0.037757043 -0.07574822 0.61544722 15.245881
-0.03760862 -0.075841658 0.61620104 16.247511
-0.037333198 -0.075795889 0.61584669 14.315179
-0.037153658 -0.075826563 0.61609244 17.300014
-0.03688556 -0.075795829 0.61585963 16.221552
-0.036689531 -0.07579203 0.61582583 18.439247
-0.036428988 -0.07577692 0.61571938 16.079426
-0.036241341 -0.075790465 0.61582637 17.579798
-0.035994448 -0.075804465 0.61595559 14.98945
-0.035800394 -0.075803913 0.61594862 18.400162
-0.035534892 -0.075778738 0.61575985 15.558897
-0.035346419 -0.075790212 0.61585045 17.499256
-0.035083391 -0.0757697 0.61569923 14.183118
-0.034905661 -0.075804263 0.61597735 14.890604
-0.034618303 -0.07573092 0.61539751 13.63827
-0.034446072 -0.075777464 0.61577272 16.220257
-0.034203637 -0.075803205 0.61599541 13.650454
-0.034012053 -0.075807072 0.61602527 17.074606
-0.033750739 -0.075790815 0.61590719 15.436104
-0.033566002 -0.075809948 0.61606091 17.064684
-0.033300433 -0.075784467 0.61586761 15.910759
-0.033123128 -0.075820677 0.61616009 18.232231
-0.03285433 -0.075788118 0.61590916 16.054176
-0.032656934 -0.075777344 0.61582077 16.627907
-0.03240969 -0.075794354 0.61597127 14.863428
-0.03222518 -0.075814135 0.61613101 17.260151
-0.03195262 -0.075771794 0.61579984 14.733775
-0.031773131 -0.075802542 0.61604869 16.321877
-0.031515721 -0.075797081 0.61601609 14.30391
-0.031329148 -0.075811431 0.6161322 17.456852
-0.0310711 -0.075803913 0.61608249 15.489976
-0.030873898 -0.075791955 0.61598557 16.883795
-0.030621938 -0.075800598 0.61606669 14.856674
-0.030426908 -0.075792603 0.61600208 16.28092
-0.030180719 -0.075816311 0.6162048 14.271929
-0.029980894 -0.075796172 0.61604202 16.205528
-0.02972701 -0.075800642 0.61608851 14.316282
-0.029536886 -0.075804912 0.61612362 17.412882
-0.029273132 -0.075784199 0.61596572 15.528089
-0.029084548 -0.075792208 0.61603147 18.567841
-0.028834835 -0.075808279 0.6161713 17.488131
-0.028630577 -0.075774737 0.61590016 19.73291
-0.028377173 -0.075781658 0.6159656 17.129459
-0.028194565 -0.07580433 0.6161505 19.629642
-0.027924731 -0.075767927 0.61586434 16.896677
-0.02774214 -0.075791098 0.61605346 17.27289
-0.0274761 -0.075764418 0.61584574 14.760201
-0.027302556 -0.075812392 0.61623609 17.701492
-0.027041826 -0.075801373 0.61615521 15.331517
-0.026856776 -0.075817592 0.61628813 18.307655
-0.026596244 -0.075806729 0.61620796 15.430248
-0.026406011 -0.075808294 0.61622232 17.427549
-0.02614202 -0.075788155 0.61606675 15.736465
-0.025957851 -0.075806193 0.61621481 16.85471
-0.025703667 -0.075814307 0.61628783 15.269457
-0.025519459 -0.075832658 0.61643898 17.012852
-0.025244134 -0.075779073 0.61601144 15.204575
-0.025070718 -0.075829312 0.61642092 18.949028
-0.024797188 -0.075780287 0.61602998 16.947058
-0.024617216 -0.075810961 0.61628115 19.059097
-0.024353513 -0.07579235 0.61613649 16.162432
-0.024160434 -0.075781621 0.61605185 17.521162
-0.023906285 -0.07579273 0.61614811 15.468059
-0.023728158 -0.075829923 0.61645222 17.622149
-0.023462364 -0.075804666 0.61625326 16.303244
-0.023272838 -0.075804219 0.61625236 19.572582
-0.0230108 -0.075791486 0.61615479 17.040335
-0.02283117 -0.075823292 0.61641544 18.437155
-0.022562925 -0.075790286 0.61615312 16.646585
-0.022381786 -0.075817123 0.6163736 19.348579
-0.022113608 -0.075783886 0.61610895 17.161409
-0.021936908 -0.075826287 0.61645597 20.528378
-0.021669237 -0.075795226 0.61620867 19.130568
-0.021478636 -0.075787835 0.61615181 20.46994
-0.021224409 -0.075804673 0.61629289 18.668661
-0.021040479 -0.07582131 0.61643106 21.219255
-0.02077749 -0.075806931 0.61631852 17.108849
-0.020590262 -0.075811431 0.61635846 19.247051
-0.020330179 -0.07580781 0.61633289 17.428888
-0.020145867 -0.075823329 0.61646235 18.759449
-0.019873958 -0.07577502 0.61607409 16.043255
-0.019695224 -0.075811528 0.61637372 17.96213
-0.019434273 -0.075805269 0.61632627 16.675308
-0.019248154 -0.075813144 0.61639374 19.504604
-0.018989293 -0.075815842 0.61641878 17.343397
-0.018801332 -0.075815603 0.61642063 19.13876
-0.018537518 -0.07579793 0.61628008 16.309158
-0.018357875 -0.075832278 0.6165626 17.608631
-0.018091829 -0.075806402 0.61635518 15.087115
-0.017904183 -0.075805932 0.6163553 18.107269
-0.017649798 -0.075830095 0.61655349 17.618147
-0.017459076 -0.075816542 0.61644775 18.649956
-0.01719366 -0.075793706 0.61626452 16.174763
-0.017016027 -0.0758361 0.61661249 19.05073
-0.016745817 -0.075791903 0.61625594 17.15344
-0.016567625 -0.075832963 0.61659312 19.336027
-0.01630359 -0.075816378 0.61646003 15.87438
-0.016118046 -0.075823471 0.61652201 18.867903
-0.015855836 -0.07581608 0.61646336 16.977461
-0.015668482 -0.075812742 0.61644042 19.60022
-0.015406011 -0.07580512 0.61637986 17.86853
-0.015224447 -0.075830571 0.61659056 19.757128
-0.014956683 -0.075796403 0.61631453 16.947792
-0.014771773 -0.075804494 0.61638445 19.182009
-0.014512117 -0.075811461 0.61644161 16.011997
-0.014331082 -0.075840123 0.61667854 18.396975
-0.014061312 -0.075794905 0.61631221 16.135008
-0.013882427 -0.07583534 0.61664468 18.697159
-0.013619598 -0.075826697 0.61657488 16.56838
-0.013432542 -0.075821854 0.61654013 17.718008
-0.013169757 -0.075814344 0.6164794 16.007643
-0.012984187 -0.075817257 0.61650747 17.729017
-0.012719823 -0.075801365 0.61637843 15.758762
-0.012539155 -0.075831927 0.61663109 19.232502
-0.012277178 -0.075831868 0.61663008 17.220413
-0.01209246 -0.075837202 0.61667806 21.420938
-0.011825506 -0.07580626 0.61642671 18.387928
-0.011644657 -0.075836405 0.61667567 19.674204
-0.01137856 -0.075811073 0.61646962 17.547789
-0.011198708 -0.075847171 0.61676705 19.428915
-0.010935601 -0.075842299 0.61672664 16.841021
-0.010747354 -0.075820908 0.61655784 18.80002
-0.010485643 -0.075826719 0.61660373 16.148216
-0.010303844 -0.075849794 0.61679572 19.004276
-0.010036465 -0.07581649 0.61652446 16.011898
-0.0098511027 -0.075811841 0.61649132 17.282259
-0.0095920339 -0.075842701 0.61674017 15.763026
-0.0094094099 -0.075859003 0.6168772 17.389635
-0.0091449888 -0.07584729 0.61678052 15.857781
-0.0089617521 -0.075861119 0.61689746 18.385166
-0.0086912885 -0.075797066 0.6163764 17.090256
-0.0085116224 -0.075837567 0.61670935 18.879591
-0.0082447622 -0.075806715 0.61645734 16.12413
-0.0080649713 -0.075848043 0.61679709 18.136635
-0.0078006447 -0.075840443 0.61673349 16.690897
-0.0076169185 -0.075843215 0.61676061 18.9107
-0.0073539582 -0.075851254 0.61682355 17.802336
-0.0071700672 -0.075852491 0.61683816 20.89185
-0.0069033629 -0.075821519 0.61658472 18.960638
-0.0067228558 -0.075858243 0.61688721 21.308249
-0.0064574769 -0.075842962 0.61676079 18.881388
-0.0062758503 -0.07586915 0.61697793 20.439169
-0.0060115755 -0.075866446 0.61695325 17.298637
-0.0058277217 -0.075864777 0.61694437 20.085871
-0.005562298 -0.075851284 0.61683208 17.273069
-0.0053806063 -0.0758719 0.61700398 19.738335
-0.0051129558 -0.075829104 0.61665398 16.661577
-0.004930933 -0.075843416 0.6167745 19.641865
-0.0046668504 -0.075852215 0.61684281 16.348944
-0.0044832649 -0.075843453 0.61677623 17.325232
-0.0042180791 -0.075837217 0.61672258 15.396486
-0.0040368205 -0.07586699 0.61696845 17.972593
-0.0037705237 -0.075838611 0.61673504 15.12361
-0.0035881167 -0.075848155 0.6168167 16.904289
-0.0033225415 -0.075837731 0.6167289 15.076714
-0.0031423874 -0.075895496 0.61720192 16.584379
-0.0028751323 -0.075850375 0.61683226 15.935165
-0.0026930328 -0.075854465 0.61686957 19.060806
-0.0024267994 -0.075829111 0.61666048 17.453093
-0.0022452667 -0.075860627 0.61692023 19.808012
-0.0019795669 -0.075849429 0.61682576 17.269388
-0.0017977809 -0.075870089 0.61699742 20.315092
-0.0015316439 -0.075849585 0.61682743 17.443258
-0.0013496216 -0.075849764 0.61683273 19.771151
-0.0010841195 -0.075869173 0.61698639 16.863144
-0.00090229424 -0.075868696 0.61698633 19.729792
-0.00063607679 -0.075873613 0.61702257 17.029802
-0.00045452031 -0.075882442 0.6170978 18.03101
-0.00018817099 -0.075861797 0.61692649 17.073832
-6.436162e-06 -0.07589221 0.61717671 17.825397
0.00025978798 -0.075874709 0.6170308 16.300415
0.000441596 -0.075894997 0.61719906 17.871464
0.00070757791 -0.07585454 0.61686671 17.550415
0.00088918384 -0.075879596 0.6170736 19.407003
0.0011554697 -0.07585647 0.61688173 17.495113
0.0013368867 -0.075871982 0.61701083 19.137175
0.0016038838 -0.075884394 0.61710733 16.132145
0.0017851645 -0.075882114 0.61709231 19.331163
0.0020517968 -0.075875334 0.61703289 16.79048
0.0022326135 -0.07587631 0.61704409 18.320824
0.0025000484 -0.075881064 0.61707813 15.788331
0.0026798327 -0.075853966 0.61686152 18.161045
0.0029470795 -0.075854182 0.6168589 14.519719
0.0031281649 -0.075866915 0.61696517 16.435398
0.003396573 -0.075890973 0.61715591 14.249627
0.0035769581 -0.075888947 0.61714232 16.038492
0.0038440432 -0.075876288 0.61703527 15.017159
0.0040249191 -0.075890101 0.61714989 17.878473
0.0042926418 -0.075891197 0.61715406 16.445429
0.0044736206 -0.075900696 0.61723393 19.158318
0.0047406508 -0.075887017 0.61711836 17.082897
0.004920661 -0.075885281 0.61710674 20.201883
0.0051877056 -0.075872548 0.61699873 17.891544
0.0053686937 -0.075890116 0.61714351 19.334553
0.0056366217 -0.075886652 0.61711091 17.867748
0.0058166152 -0.075890407 0.61714333 19.778391
0.0060849204 -0.075889967 0.61713523 16.548811
0.0062661804 -0.075907648 0.6172809 19.872854
0.0065332539 -0.07589294 0.61715686 17.74021
0.0067131254 -0.075896583 0.61718827 20.395718
0.0069830655 -0.075910158 0.61729354 16.869881
0.0071595488 -0.075880505 0.61705482 19.748669
0.0074306494 -0.075903364 0.6172356 18.118721
0.007609399 -0.075900637 0.61721504 20.137838
0.0078784311 -0.075900793 0.61721164 17.295649
0.0080554029 -0.075880013 0.61704451 19.424231
0.0083261402 -0.075896338 0.61717206 17.401569
0.00850756 -0.075918011 0.61734933 19.750586
0.0087746428 -0.075899512 0.61719429 17.738144
0.0089540267 -0.075904079 0.61723262 19.56394
0.0092211217 -0.075884655 0.61707032 17.953722
0.009402751 -0.07591074 0.61728293 20.713005
0.0096717756 -0.075906806 0.61724621 16.847181
0.0098513225 -0.075915046 0.61731374 19.959682
0.010120257 -0.075908214 0.6172536 17.22154
0.010300127 -0.075919315 0.61734432 19.445364
0.010572419 -0.075936519 0.61747903 16.911657
0.010748942 -0.075924098 0.61737895 19.134636
0.01101461 -0.075893357 0.61712492 17.760719
0.011202171 -0.075958312 0.61765194 19.560593
0.011466285 -0.075917155 0.61731339 17.903038
0.011644993 -0.075922519 0.61735684 19.826391
0.011912142 -0.07590194 0.61718541 17.416662
0.012094706 -0.07593172 0.61742669 18.800051
0.012361856 -0.075911351 0.61725694 16.708946
0.01254104 -0.07592129 0.61733717 18.564878
0.01281414 -0.075935632 0.61744887 16.365499
0.012990409 -0.075928077 0.61738706 18.591265
0.013259114 -0.075916275 0.61728686 15.657114
0.013436386 -0.07591562 0.6172806 18.66464
0.013711694 -0.075939946 0.6174736 17.770954
0.013889606 -0.075944155 0.61750668 19.987177
0.014155946 -0.075917952 0.61728978 17.898457
0.014335221 -0.075930007 0.61738628 19.615225
0.014608638 -0.075940631 0.617468 18.31683
0.014784146 -0.07593412 0.6174137 21.062513
0.015055414 -0.075932354 0.61739522 18.108196
0.015233262 -0.075938642 0.61744457 21.183491
0.015498296 -0.0759065 0.61717963 17.943136
0.015678475 -0.075923681 0.61731684 19.578056
0.015949974 -0.075922921 0.61730665 17.422245
0.01612605 -0.075921081 0.61728942 18.699106
0.016397407 -0.07591866 0.61726582 16.751303
0.016579445 -0.075944752 0.61747503 18.233452
0.016845034 -0.075915232 0.61723167 16.80912
0.017027603 -0.075944237 0.61746418 18.433172
0.017302271 -0.075955197 0.61754918 17.440907
0.017477512 -0.075950965 0.61751187 20.543709
0.017745733 -0.075933516 0.61736655 18.418972
0.01792313 -0.075940184 0.61741751 20.460321
0.018190777 -0.075920023 0.61725026 17.322725
0.018373646 -0.075949296 0.61748403 19.534702
0.018646536 -0.075950727 0.61749208 17.435261
0.018823829 -0.075957239 0.61754143 20.806513
0.019091187 -0.075935192 0.61735904 16.942158
0.019267252 -0.075937495 0.61737365 21.019279
0.019542284 -0.075946204 0.61744082 17.741875
0.019715307 -0.075936884 0.61736107 19.583355
0.019986665 -0.075930409 0.61730534 17.781199
0.020164989 -0.075941771 0.61739278 20.113235
0.020434095 -0.075927287 0.61727226 18.085865
0.020616379 -0.075954199 0.61748552 20.091442
0.020883707 -0.075931929 0.61730188 18.359709
0.02106539 -0.075955972 0.61749178 20.192282
0.021330366 -0.075926185 0.61724728 17.90531
0.021513384 -0.075955316 0.61747819 20.687521
0.021787783 -0.07595741 0.6174922 18.447325
0.021962358 -0.075957291 0.61748558 20.867208
0.022228297 -0.075930096 0.61726236 18.897263
0.022410709 -0.075957172 0.61747605 21.765577
0.022680221 -0.075942039 0.61735088 19.26399
0.022855507 -0.075945504 0.61737239 21.427008
0.023123836 -0.075926363 0.61721498 18.699009
0.023309236 -0.075963527 0.61750954 21.872665
0.023755725 -0.075957537 0.61745179 22.143898
0.024018535 -0.075920239 0.61714739 20.038479
0.024204453 -0.075958408 0.61744958 21.587324
0.024461657 -0.075904071 0.6170072 18.341036
0.024650661 -0.075951539 0.61738437 20.60619
0.025539948 -0.075929761 0.6171881 21.927113
0.025802158 -0.075892381 0.61688399 18.493574
0.025981979 -0.075911902 0.61703312 20.575251
0.026250884 -0.075893894 0.6168862 17.550119
0.02643537 -0.075927205 0.61714715 20.37746
0.027327279 -0.07591489 0.61702621 21.230309
0.027766857 -0.0758911 0.61682272 21.64073
0.036168933 -0.075663179 0.61473995 17.109125
0.037591882 -0.074939057 0.60881358 8.417675
-0.20340675 -0.076778226 0.61066705 12.416682
-0.20304199 -0.076741785 0.61043781 11.067203
-0.20278589 -0.076715186 0.61023098 13.174783
-0.20247653 -0.076699711 0.61016899 12.274595
-0.20231955 -0.07671053 0.61025798 14.56232
-0.2020472 -0.076709017 0.61030793 11.903987
-0.20179309 -0.076683015 0.61010361 13.068684
-0.20146652 -0.076660827 0.60999 11.613202
-0.20142429 -0.076715715 0.6104269 14.466986
-0.20105673 -0.076677695 0.61018902 12.029836
-0.20095135 -0.076708518 0.61043352 14.57939
-0.20065084 -0.076696105 0.6103999 12.296515
-0.20039959 -0.076671235 0.61020106 14.096231
-0.20011702 -0.076665536 0.61022174 12.472153
-0.20000906 -0.076695547 0.61045766 14.678624
-0.19971795 -0.076686569 0.61045349 12.19852
-0.19954669 -0.07669235 0.61049563 14.162602
-0.19921805 -0.076668963 0.61037785 11.293002
-0.19901825 -0.076663554 0.61033016 13.277284
-0.19883272 -0.076695479 0.61065286 11.459128
-0.1985987 -0.076676995 0.61050004 14.494794
-0.19840749 -0.076706648 0.61080581 11.547511
-0.1982011 -0.076698869 0.61073691 13.263371
-0.19775291 -0.076628909 0.61025196 12.546688
-0.19754465 -0.076620191 0.61017466 15.371017
-0.19731882 -0.076636441 0.61037576 12.561013
-0.19716603 -0.07664945 0.61047006 14.008237
-0.19682425 -0.076620534 0.61031324 12.12717
-0.19670837 -0.076647922 0.6105206 14.984166
-0.19645485 -0.076653309 0.61063749 12.745223
-0.19625726 -0.076648973 0.61059153 14.582948
-0.19602525 -0.076662898 0.61077738 13.232753
-0.19573583 -0.076622546 0.61044389 15.751632
-0.19557217 -0.076663285 0.61084408 13.97605
-0.1952987 -0.076629102 0.61055845 15.574165
-0.19500127 -0.076617166 0.61054057 12.332157
-0.19481704 -0.076618105 0.61053336 14.476393
-0.19452494 -0.076608278 0.61053318 10.109786
-0.19435185 -0.076613516 0.61055887 14.19847
-0.19405957 -0.076603487 0.61055815 12.566031
-0.19390826 -0.076617397 0.61065179 15.82147
-0.19358423 -0.076594889 0.61055279 13.405246
-0.19342382 -0.076605186 0.61061662 16.266516
-0.19314311 -0.076599799 0.61065477 13.207561
-0.19289096 -0.076573707 0.61042809 15.986819
-0.19264792 -0.076583259 0.61058605 13.094206
-0.1924721 -0.07658755 0.61059988 14.616752
-0.19217168 -0.076574042 0.61057514 13.208296
-0.19197936 -0.076571912 0.61053705 15.13131
-0.19168532 -0.076560855 0.61053294 11.896382
-0.19156432 -0.076587185 0.6107201 14.277043
-0.19121543 -0.076554187 0.61054224 12.087098
-0.19105716 -0.076565579 0.61060947 14.013521
-0.19075876 -0.07655289 0.61059415 11.599442
-0.19056697 -0.07655073 0.61055261 12.220318
-0.19035992 -0.076574795 0.61083096 11.756294
-0.19016628 -0.076571986 0.61078286 13.062413
-0.18976185 -0.076516286 0.61042714 11.798016
-0.18968667 -0.076561429 0.61075985 14.660612
-0.18938078 -0.07654541 0.61072111 13.690017
-0.1891544 -0.076529369 0.6105656 15.581578
-0.18884686 -0.076512635 0.61052191 10.919935
-0.18869109 -0.076525249 0.61059374 13.435756
-0.18837841 -0.076506399 0.61053389 10.348638
-0.18818833 -0.07650508 0.61049372 11.751543
-0.18800807 -0.076539986 0.61086321 10.862406
-0.18781209 -0.076536387 0.61080354 13.13952
-0.1875459 -0.076536343 0.61089575 11.340299
-0.18737148 -0.076541521 0.61090487 15.606503
-0.18714373 -0.076557212 0.61112338 12.57967
-0.1869012 -0.076534525 0.6109097 16.083441
-0.18655688 -0.076502264 0.61074686 12.285496
-0.18643703 -0.076530017 0.6109339 15.889329
-0.18614444 -0.07651908 0.61094213 12.711478
-0.185877 -0.07648591 0.61064267 15.592852
-0.18569374 -0.076519847 0.6110093 13.107674
-0.18544047 -0.076492682 0.61075652 15.577432
-0.18518694 -0.076497674 0.61089349 11.292034
-0.18495843 -0.076480612 0.61072028 14.589288
-0.18473069 -0.07649643 0.61094445 12.617816
-0.18450592 -0.076480649 0.61078024 15.426229
-0.18416642 -0.076449871 0.61063397 12.370298
-0.18410119 -0.076500826 0.61100084 14.640154
-0.18378887 -0.076481283 0.61094505 11.502982
-0.18358076 -0.076472647 0.61083573 14.798067
-0.18328333 -0.076459199 0.61082941 11.566774
-0.18315223 -0.076482758 0.61097586 13.802114
-0.18273467 -0.076418974 0.61056912 9.6346588
-0.18270142 -0.07648351 0.61104113 12.384006
-0.18238068 -0.076460294 0.61095876 12.266925
-0.18216936 -0.076450288 0.61083561 14.206339
-0.18183523 -0.076421335 0.61070812 12.155128
-0.18169096 -0.07643947 0.61080843 14.161795
-0.18137215 -0.076416835 0.61073226 10.628883
-0.18133156 -0.076478802 0.61118096 12.287731
-0.18100204 -0.07645157 0.61106926 10.385311
-0.18080185 -0.076446287 0.61098063 12.865477
-0.18049066 -0.076426633 0.6109302 12.006757
-0.18034104 -0.076442756 0.61101115 14.810361
-0.18000333 -0.076411858 0.61087173 11.563775
-0.17983823 -0.07642144 0.61089975 14.661451
-0.17956115 -0.076416172 0.61096585 11.147404
-0.17933866 -0.076401316 0.61079776 14.01328
-0.1790788 -0.076403476 0.61092389 11.032164
-0.17895615 -0.07643117 0.6110943 13.768027
-0.17861593 -0.076398887 0.61094648 12.595197
-0.17839195 -0.07638333 0.61077094 15.367235
-0.17818058 -0.076406173 0.6110639 13.607863
-0.17796317 -0.076393314 0.61090881 15.326802
-0.17775485 -0.076417528 0.61121368 12.14038
-0.17756239 -0.076415621 0.61114484 14.117435
-0.17733788 -0.076432966 0.61139596 10.891912
-0.17710035 -0.076411463 0.61116952 14.272982
-0.17671716 -0.076360114 0.6108731 12.964057
-0.17659378 -0.076387942 0.61103952 15.85583
-0.17628354 -0.076368026 0.61099476 12.469922
-0.17615537 -0.076393969 0.61114544 15.443742
-0.17585123 -0.076376647 0.61112237 12.98817
-0.17567365 -0.076381207 0.61110115 14.243643
-0.17538485 -0.076370426 0.61113107 11.565341
-0.17516717 -0.076357551 0.61096978 14.359544
-0.17486271 -0.076340035 0.6109466 12.930573
-0.17470911 -0.076354861 0.61100566 13.598473
-0.17444389 -0.076354437 0.61112005 10.832851
-0.17430604 -0.076376408 0.61123508 14.361118
-0.17411178 -0.076407082 0.61159885 12.2426
-0.17388013 -0.076387987 0.61138469 14.560778
-0.17341731 -0.076300316 0.61080354 12.638587
-0.17329118 -0.076327659 0.61095977 15.755492
-0.17294919 -0.076293103 0.61080378 12.099726
-0.17290498 -0.076356702 0.61124861 14.086596
-0.17256172 -0.07632155 0.61108899 11.449719
-0.17244254 -0.076352142 0.61126888 13.084485
-0.17211585 -0.076324254 0.61116815 10.514353
-0.17197487 -0.076345198 0.61127019 13.152655
-0.17174341 -0.076359555 0.61150783 11.822371
-0.17149 -0.076330528 0.61120951 13.55606
-0.17118947 -0.076314129 0.611202 11.727629
-0.17103218 -0.076327972 0.61124551 14.074684
-0.1706692 -0.076283358 0.61101347 10.705647
-0.17054453 -0.076311968 0.61117399 12.808627
-0.1703275 -0.076332711 0.61146516 10.350301
-0.1701386 -0.076332711 0.61139596 12.29915
-0.16985063 -0.076321587 0.61143327 10.837014
-0.16962154 -0.076303236 0.61121625 12.405753
-0.16941644 -0.076329425 0.61155277 10.562581
-0.16916521 -0.076301053 0.61125481 13.395332
-0.16892658 -0.076312192 0.61147171 10.861918
-0.16868664 -0.076288871 0.61121327 12.91005
-0.16850305 -0.076325007 0.61163116 10.92155
